0.185407, -0.008716, 0.108494
0.198852, 0.002820, 0.186883
0.194809, 0.002869, 0.180109
0.196073, -0.003338, 0.176043
0.196041, -0.003215, 0.175618
0.197479, 0.002043, 0.181460
0.197497, 0.003174, 0.182273
0.197266, 0.001640, 0.188525
0.200772, 0.001546, 0.189573
0.197922, 0.003996, 0.189110
0.204598, -0.006869, 0.165454
0.196038, 0.003846, 0.183444
0.195798, 0.003866, 0.183016
0.196616, 0.003851, 0.183771
0.199035, 0.003528, 0.171671
0.197411, 0.003170, 0.187493
0.197107, 0.004022, 0.187129
0.181442, -0.000100, 0.169494
0.196231, 0.003762, 0.181107
0.198243, -0.005113, 0.166627
0.198271, 0.003140, 0.175831
0.197032, -0.000241, 0.175469
0.200981, 0.002373, 0.192233
-0.164934, -0.002290, 0.164597
0.197708, 0.003638, 0.188031
0.201097, 0.003365, 0.189563
0.200792, 0.003545, 0.185328
0.195116, -0.004078, 0.167492
0.197983, 0.002733, 0.175826
0.198187, 0.001946, 0.177242
0.042594, -0.022584, 0.188366
0.133508, 0.008849, 0.165204
0.197316, 0.003823, 0.187083
0.195940, 0.000255, 0.174360
0.181145, 0.004116, 0.174396
0.197426, 0.002917, 0.180138
0.196616, 0.003294, 0.174493
0.197310, 0.000482, 0.177684
0.197314, 0.002006, 0.181694
0.193197, 0.002907, 0.177697
0.201887, 0.003332, 0.176024
-0.510670, -0.143150, 0.335962
-0.037808, -0.026329, 0.092339
-0.039990, -0.042648, 0.265956
0.182444, -0.005449, 0.151423
0.197426, 0.003454, 0.187464
0.201142, 0.003352, 0.187034
0.201359, 0.002158, 0.190164
0.157190, -0.003835, 0.220276
0.157195, -0.003837, 0.220286
0.201311, 0.003608, 0.185418
0.182122, 0.002836, 0.176099
0.173160, -0.003417, 0.173361
0.173126, -0.003902, 0.173165
0.199853, 0.003719, 0.190024
0.197811, -0.003186, 0.170767
0.201076, 0.002292, 0.190692
0.201040, 0.002298, 0.190283
0.189509, -0.002655, 0.169038
0.195326, 0.000181, 0.172187
0.196034, 0.003872, 0.182929
0.195450, 0.003795, 0.182078
0.197867, 0.003693, 0.179864
0.201057, 0.002024, 0.189941
0.202353, -0.000770, 0.183019
0.200694, 0.000395, 0.184871
0.189248, 0.001951, 0.170318
0.031661, -0.044450, 0.214859
0.179818, 0.004162, 0.177845
0.198865, 0.003197, 0.169377
0.195846, 0.002898, 0.180971
0.195420, 0.003363, 0.181973
0.201001, 0.001237, 0.187818
0.201561, 0.000403, 0.185917
0.201079, 0.001068, 0.187060
0.201221, 0.002153, 0.187459
0.198093, 0.003869, 0.183345
0.200409, 0.001361, 0.187868
0.200705, 0.000177, 0.185177
0.198186, -0.001021, 0.173320
0.196176, 0.001543, 0.183454
0.200567, 0.003265, 0.177170
0.168294, -0.005857, 0.181222
0.131271, 0.000298, 0.198515
0.168436, 0.004631, 0.191659
0.201014, 0.001845, 0.189554
0.201189, 0.003698, 0.190024
0.197246, 0.001809, 0.180639
0.197451, 0.002755, 0.177743
0.197194, 0.001556, 0.187064
0.198222, 0.001518, 0.179762
0.195789, 0.000741, 0.176728
0.195312, 0.002896, 0.176306
0.197228, 0.003306, 0.181375
0.200441, 0.003630, 0.184195
0.197231, 0.001271, 0.181174
0.195983, 0.003502, 0.179679
0.197154, 0.003745, 0.181933
0.201137, 0.002137, 0.187131
0.195903, 0.003134, 0.181521
0.109317, 0.004470, 0.140236
0.184284, 0.004582, 0.183072
0.183156, 0.005315, 0.175243
0.196512, -0.008603, 0.142995
0.198197, 0.002704, 0.176203
0.196158, 0.000193, 0.176335
0.198614, 0.001479, 0.176692
0.199422, 0.003704, 0.184741
0.200733, 0.000387, 0.184599
0.196030, 0.003128, 0.182445
0.197809, 0.002765, 0.180300
0.195883, 0.003321, 0.181549
0.194546, 0.003494, 0.178993
0.195994, 0.003877, 0.182889
0.201215, 0.003635, 0.185377
0.201043, 0.001457, 0.188307
0.199621, 0.003653, 0.182962
0.199069, 0.003735, 0.181231
0.197659, 0.001711, 0.182437
0.195522, 0.002942, 0.182009
0.191215, -0.011125, 0.136835
0.201049, 0.001528, 0.189664
0.195906, 0.003814, 0.182794
0.198263, 0.003784, 0.188208
0.197859, 0.003070, 0.180905
0.193782, 0.003683, 0.182997
0.167505, -0.000941, 0.182027
0.202131, 0.001363, 0.188696
0.195658, 0.003230, 0.182384
0.195228, 0.003940, 0.183041
0.194969, 0.003966, 0.182765
0.197191, 0.000181, 0.174817
0.201050, 0.003325, 0.189625
0.201149, 0.001709, 0.189194
0.199857, 0.003674, 0.184029
0.194957, -0.003048, 0.170561
0.193041, 0.003360, 0.172906
0.198048, 0.001652, 0.178624
0.201220, 0.000299, 0.180783
0.198597, 0.001397, 0.176518
0.196802, -0.000194, 0.175331
0.198579, 0.001422, 0.175356
0.197848, 0.002179, 0.182745
0.198509, 0.003710, 0.179743
0.197798, 0.001601, 0.181796
0.195747, 0.003505, 0.181386
0.201118, 0.002232, 0.187151
0.200477, 0.003578, 0.179859
0.157239, -0.003915, 0.220146
0.195369, 0.003900, 0.183690
0.195790, 0.003860, 0.183005
0.199582, 0.003739, 0.189907
0.201038, 0.002199, 0.189946
0.189412, -0.003180, 0.167419
0.197723, 0.003712, 0.182035
0.197919, 0.003707, 0.183512
0.196439, 0.001330, 0.182216
0.200802, 0.000087, 0.183869
0.195688, 0.004154, 0.181469
0.196138, 0.003772, 0.179611
0.198437, -0.005067, 0.169759
0.181303, 0.003411, 0.172412
0.194637, 0.002700, 0.181579
0.197189, 0.002056, 0.182652
0.178136, -0.004505, 0.172152
0.176798, -0.001284, 0.167453
0.197472, 0.002732, 0.181578
0.197036, 0.002740, 0.178901
0.195845, 0.001376, 0.180770
0.195312, 0.003858, 0.183850
0.175851, -0.002769, 0.183547
0.167795, 0.006440, 0.180634
0.193118, 0.003689, 0.172900
0.196744, -0.005611, 0.141197
0.194674, 0.003930, 0.182691
0.186071, 0.002285, 0.185169
0.195694, 0.000292, 0.176933
0.196884, 0.001599, 0.178480
0.200601, 0.000491, 0.185889
0.199071, 0.003713, 0.190395
0.171894, -0.004954, 0.167611
0.182956, 0.002304, 0.172127
0.194385, 0.003919, 0.183178
0.182627, 0.003443, 0.179666
0.183677, 0.003895, 0.180130
0.197268, 0.003225, 0.175093
0.198550, -0.003666, 0.168758
0.189061, -0.004415, 0.168645
0.189571, -0.003910, 0.168792
0.196366, -0.003417, 0.174240
0.195731, 0.002129, 0.182834
0.195664, 0.000316, 0.176811
0.200734, 0.000422, 0.185101
0.196644, 0.001152, 0.178312
0.048324, -0.026228, 0.210296
0.113364, -0.005941, 0.192201
0.099707, 0.008389, 0.154650
0.111309, 0.006106, 0.150263
0.196824, 0.003183, 0.186187
0.108541, 0.001192, 0.143725
0.108419, -0.011660, 0.174226
-0.023163, -0.041777, 0.213235
0.157028, 0.008263, 0.166235
0.081392, 0.007944, 0.213219
0.195399, 0.003351, 0.178382
0.196356, 0.000063, 0.175206
0.200644, 0.003333, 0.176311
0.196292, 0.003102, 0.183064
0.192012, -0.000611, 0.170389
0.197118, 0.003439, 0.178792
0.189663, -0.004430, 0.168661
0.187384, -0.004605, 0.168181
0.196180, 0.003290, 0.182061
0.185758, 0.003965, 0.172787
0.197183, 0.003596, 0.176293
0.201705, 0.001975, 0.185963
0.157268, -0.003960, 0.220002
0.197936, 0.003558, 0.174347
0.182510, 0.003229, 0.179907
0.194885, 0.003919, 0.183699
0.201059, 0.001983, 0.189890
0.201054, 0.002137, 0.189993
0.194762, -0.002853, 0.170693
0.197764, 0.003696, 0.182131
0.189275, -0.004767, 0.169396
0.197035, 0.001023, 0.176424
0.157245, -0.003919, 0.220074
0.201070, 0.001238, 0.189393
0.195716, 0.003661, 0.176246
0.197930, 0.003715, 0.182824
0.200810, 0.001784, 0.185076
0.198843, 0.003743, 0.190327
0.200503, 0.001038, 0.186939
0.198113, 0.003875, 0.187884
-0.092572, -0.050780, 0.266917
0.174934, -0.004192, 0.176892
0.197656, 0.002797, 0.182011
0.200911, 0.002276, 0.188629
0.201057, 0.002050, 0.189619
0.201010, 0.001418, 0.188463
0.201110, 0.001944, 0.190628
0.193886, 0.002936, 0.178558
0.201223, 0.003403, 0.185315
0.195949, 0.002850, 0.180989
0.197266, 0.003741, 0.182917
0.195852, 0.004290, 0.180933
0.201045, 0.001816, 0.189802
0.197132, 0.001731, 0.182833
0.201142, 0.001786, 0.190115
0.200739, 0.001613, 0.189756
0.197815, 0.003716, 0.179748
0.184828, 0.003366, 0.173446
0.185533, 0.004590, 0.158454
0.198507, 0.003733, 0.183338
0.186350, 0.003620, 0.184865
0.032945, -0.008750, 0.202063
0.184003, 0.003543, 0.180108
0.178360, -0.002541, 0.181636
0.197901, -0.002954, 0.171674
0.195599, 0.004177, 0.181151
0.201071, 0.001795, 0.189743
0.195406, 0.003624, 0.177878
0.197910, 0.003295, 0.180987
0.200974, 0.001565, 0.187359
0.192285, 0.002984, 0.174697
0.195717, 0.003469, 0.180123
0.194388, 0.003928, 0.180084
0.201078, 0.001280, 0.187392
0.201807, 0.001993, 0.173609
0.200815, 0.003432, 0.184306
0.201167, 0.003621, 0.190729
0.198207, 0.003833, 0.188662
0.197012, 0.002853, 0.182285
0.188964, -0.005160, 0.168183
0.189472, -0.004535, 0.168440
0.197812, 0.003039, 0.179554
0.195449, 0.003161, 0.181957
0.196934, 0.002838, 0.182914
0.196424, 0.004892, 0.184159
0.194510, 0.003871, 0.183313
0.046440, -0.023138, 0.109309
-0.039101, -0.043534, 0.272600
0.197139, 0.003777, 0.181594
0.197180, 0.002029, 0.182639
0.197363, 0.000333, 0.175813
0.196239, 0.003734, 0.181156
0.199137, 0.003430, 0.173540
0.199056, 0.003542, 0.171515
0.201066, -0.001061, 0.181847
0.198276, 0.001480, 0.180791
0.197995, -0.003036, 0.172011
0.199908, 0.003708, 0.188237
0.157544, 0.003769, 0.175572
0.129304, -0.001638, 0.184172
0.163104, 0.007974, 0.159380
0.197806, 0.003723, 0.179750
0.197555, 0.003507, 0.181572
0.196850, 0.000663, 0.177423
0.183609, -0.003303, 0.173035
0.171065, -0.005043, 0.173429
0.183437, 0.003952, 0.180132
0.201203, 0.003516, 0.186458
0.198825, 0.003770, 0.190277
0.197246, 0.003845, 0.186927
0.189535, -0.002974, 0.169144
0.189152, -0.002447, 0.169552
0.189440, -0.003173, 0.169959
0.197487, -0.003813, 0.169620
0.197869, 0.003265, 0.180692
0.197515, 0.003305, 0.180210
0.197422, 0.002135, 0.181560
0.199425, 0.003695, 0.184066
0.041920, 0.014511, 0.096050
0.195074, 0.003910, 0.183677
0.195353, 0.003912, 0.182505
0.195780, 0.000155, 0.176640
0.195927, 0.002856, 0.180949
0.141144, 0.013161, 0.185825
0.052531, 0.009232, 0.191611
0.198196, 0.003547, 0.174624
0.196405, 0.001494, 0.183413
0.196366, 0.003280, 0.181870
0.201123, 0.002254, 0.187149
0.198169, 0.003678, 0.183422
0.197555, 0.003726, 0.183831
0.196006, 0.000625, 0.176819
0.200825, 0.003429, 0.186038
0.197234, 0.003755, 0.182793
0.196302, 0.003499, 0.177717
0.196975, 0.003717, 0.179178
-0.049510, -0.039348, 0.144386
-0.074462, -0.079729, 0.223174
-0.056947, -0.048146, 0.208915
-0.073065, -0.036678, 0.149828
0.201067, 0.001865, 0.188344
0.201060, 0.002286, 0.189558
0.202003, 0.003479, 0.172054
0.197888, 0.003219, 0.174644
0.137650, 0.008497, 0.157921
0.198521, 0.001035, 0.176839
0.201155, 0.002098, 0.187109
0.198560, 0.001857, 0.176187
0.200149, 0.003643, 0.181176
0.202409, -0.001891, 0.174545
0.197760, 0.003707, 0.182122
0.167898, 0.004650, 0.174601
0.165795, 0.005376, 0.173618
0.154064, -0.003604, 0.181923
-0.063406, -0.036045, 0.147326
0.200040, 0.003641, 0.183427
0.197988, 0.003686, 0.179192
0.197876, 0.003405, 0.179151
0.196414, 0.000154, 0.176242
0.194921, 0.003836, 0.179525
0.195870, 0.003415, 0.181847
0.197567, 0.003736, 0.181957
0.195928, 0.004109, 0.182077
0.201382, 0.002170, 0.188646
0.089096, 0.002104, 0.158220
0.108724, 0.011576, 0.180816
0.194873, -0.002613, 0.170966
0.197406, 0.002807, 0.174484
0.049065, -0.039091, 0.210264
0.201105, 0.001671, 0.187146
0.197449, 0.003213, 0.174000
0.199850, 0.003753, 0.189953
0.200769, 0.001620, 0.184187
0.196838, 0.003742, 0.181194
0.200728, 0.001671, 0.184398
0.201791, 0.001980, 0.173291
0.197285, 0.003431, 0.182228
0.196102, -0.000544, 0.174916
0.196684, 0.003794, 0.180940
0.196455, 0.003602, 0.180574
0.201291, 0.003441, 0.185405
0.197284, -0.003033, 0.145568
0.182352, 0.002917, 0.176774
0.005354, -0.033896, 0.129987
-0.002423, -0.054134, 0.235218
0.200686, 0.000528, 0.184935
-0.115861, -0.004756, 0.133857
0.196350, -0.004435, 0.171400
0.197650, 0.002804, 0.181615
0.200439, 0.003648, 0.182544
0.183940, 0.003455, 0.183462
0.184428, 0.002514, 0.181620
0.172761, -0.003945, 0.170159
0.201053, 0.002289, 0.189592
0.195605, 0.003717, 0.182180
0.198083, 0.001539, 0.175102
0.194068, 0.003591, 0.171130
0.197583, 0.003232, 0.174703
0.197230, 0.003237, 0.174823
0.195907, 0.003347, 0.182087
0.190613, -0.003874, 0.167122
0.191035, -0.002735, 0.168035
0.199149, 0.003760, 0.183781
0.197302, 0.002828, 0.181788
0.195294, 0.003231, 0.179183
0.196158, 0.000668, 0.178076
0.198598, 0.003789, 0.183751
0.200589, 0.000960, 0.186210
0.201079, 0.001176, 0.187093
0.194891, 0.003439, 0.178257
0.200984, 0.001483, 0.186937
0.005788, -0.042464, 0.113292
0.197209, 0.001813, 0.181177
0.201057, 0.002063, 0.189791
0.201117, 0.002056, 0.189566
0.195482, 0.005435, 0.182007
0.197525, 0.003142, 0.174649
0.196789, 0.003777, 0.183489
0.185100, 0.003797, 0.179117
0.173923, 0.001902, 0.174696
0.180699, 0.003890, 0.174289
0.195634, -0.005099, 0.164329
0.195595, -0.005084, 0.164297
0.156667, -0.002480, 0.162840
-0.029173, -0.043563, 0.212444
0.122094, 0.002313, 0.176572
0.197613, 0.003543, 0.174375
0.198150, 0.003500, 0.174631
0.198701, 0.003574, 0.183161
0.199218, 0.003808, 0.183635
0.196562, 0.000342, 0.175190
0.199858, 0.003703, 0.183184
0.187584, 0.004981, 0.183167
0.187583, 0.004672, 0.185114
0.201108, 0.001656, 0.188000
0.196291, 0.000001, 0.175741
0.201337, 0.001131, 0.185693
0.175859, 0.006551, 0.173272
0.194845, 0.003931, 0.182078
0.150525, 0.008156, 0.169633
0.197241, 0.001474, 0.181675
0.197756, 0.000574, 0.175340
0.197779, 0.003366, 0.177310
0.189970, -0.003686, 0.170304
0.196104, 0.003762, 0.183144
0.201246, 0.003668, 0.188183
0.201097, 0.003373, 0.189582
0.194431, 0.003338, 0.180838
0.201077, 0.001255, 0.187521
0.191219, -0.002856, 0.168408
0.194900, 0.003416, 0.180786
0.201100, 0.001380, 0.186020
0.201024, 0.002075, 0.190020
0.201062, 0.002183, 0.189889
0.181013, 0.006596, 0.172254
0.184221, 0.005711, 0.174984
0.195580, 0.002967, 0.181169
0.198065, 0.003917, 0.188011
0.194747, 0.003917, 0.182681
0.201076, 0.002088, 0.189644
0.201048, 0.001835, 0.189501
0.201168, 0.003359, 0.187130
0.174356, -0.004853, 0.170017
0.179113, 0.004179, 0.173327
0.198839, -0.000756, 0.175359
0.191661, -0.000485, 0.169384
0.198305, 0.002188, 0.174064
0.176891, 0.006951, 0.188441
0.199740, 0.003694, 0.186566
0.199157, 0.003648, 0.181710
0.197310, 0.000096, 0.175964
0.199756, 0.003636, 0.181274
0.198388, 0.003727, 0.185220
0.198225, 0.003733, 0.184019
0.197496, 0.001711, 0.179858
0.197397, 0.003439, 0.180844
0.190073, 0.003917, 0.169815
0.197070, 0.001554, 0.178209
0.180699, 0.003615, 0.175916
0.161673, -0.002355, 0.161697
0.197220, 0.003748, 0.182774
-0.459780, -0.158750, 0.126535
0.191506, 0.004047, 0.179564
0.202886, 0.004764, 0.183919
0.195691, 0.003384, 0.179351
0.197037, 0.003512, 0.182105
0.195311, -0.004304, 0.166687
0.197393, 0.003308, 0.180834
0.196055, -0.009436, 0.139083
0.195880, 0.003175, 0.181969
0.197181, 0.001608, 0.181993
0.196764, 0.001548, 0.181753
0.199576, 0.003584, 0.179232
0.197199, 0.002041, 0.182595
0.199478, 0.003656, 0.178593
0.198662, 0.003727, 0.183940
0.199417, 0.003699, 0.184729
0.106493, -0.001350, 0.173952
0.127458, 0.002783, 0.170766
0.197137, 0.002998, 0.181257
0.197148, 0.000339, 0.174333
0.198793, -0.002600, 0.171779
0.194961, -0.002468, 0.169879
0.197874, 0.003420, 0.176963
0.189658, 0.004003, 0.184274
0.181497, -0.000254, 0.169444
0.198077, 0.003299, 0.173356
0.199316, 0.003606, 0.166872
0.197966, 0.003695, 0.181192
0.196625, 0.003458, 0.181273
0.197189, 0.003324, 0.181427
0.198140, 0.001402, 0.179417
0.201115, 0.003618, 0.188312
0.019407, -0.006465, 0.071902
-0.415254, -0.108062, 0.155423
-0.414828, -0.185001, 0.161172
0.199192, 0.003723, 0.182360
0.199061, 0.003682, 0.182959
0.198926, 0.003709, 0.183976
0.199078, 0.003674, 0.183029
0.196247, 0.000794, 0.177497
0.200837, 0.003057, 0.184185
0.201269, 0.003628, 0.187082
0.195847, 0.002928, 0.183742
0.198204, 0.001675, 0.176817
0.074214, 0.006055, 0.126218
0.108954, 0.004850, 0.144164
0.069828, -0.015278, 0.192558
0.138941, 0.005646, 0.167671
0.196888, 0.000262, 0.175151
0.156107, -0.002919, 0.181098
-0.087960, -0.075188, 0.135105
0.084067, -0.005304, 0.157685
0.162344, -0.006213, 0.172933
-0.012332, -0.016781, 0.157301
0.201235, 0.003629, 0.188258
0.201576, 0.002036, 0.187617
0.193771, 0.003917, 0.183651
0.179477, 0.002850, 0.175181
0.195799, 0.003872, 0.183673
0.178890, 0.002825, 0.178667
0.183724, 0.002467, 0.180370
0.192198, 0.003976, 0.181614
0.195465, 0.002814, 0.181826
0.199862, 0.003628, 0.183145
-0.007180, -0.031945, 0.149013
0.183129, 0.002979, 0.182523
0.182529, 0.002392, 0.181965
0.187019, 0.004032, 0.183835
0.179739, 0.002955, 0.176322
0.195624, -0.004117, 0.168548
0.189100, -0.002762, 0.169424
0.200678, 0.001139, 0.185339
0.200978, 0.002249, 0.188318
0.197074, 0.002827, 0.181876
0.157147, -0.003362, 0.218972
0.198672, 0.001197, 0.167715
0.197665, 0.001815, 0.180479
0.199257, 0.003707, 0.183936
0.043751, -0.045129, 0.224588
0.100262, 0.001515, 0.155269
0.033512, -0.008168, 0.190436
0.164865, -0.003355, 0.174353
0.196850, 0.003211, 0.180732
0.197492, 0.003426, 0.182037
0.201283, 0.003641, 0.187053
0.201090, 0.001849, 0.188289
0.201242, 0.001718, 0.187759
0.142460, -0.001304, 0.190949
0.174535, 0.004206, 0.188337
0.195242, 0.003242, 0.181085
0.197477, 0.001609, 0.182047
0.199315, 0.003683, 0.181998
-0.007384, -0.045597, 0.144112
-0.038327, -0.036671, 0.150734
0.107078, 0.007904, 0.154556
0.195185, -0.001309, 0.172087
-0.015784, -0.062161, 0.237500
0.179101, -0.004489, 0.170578
0.193592, 0.004009, 0.180632
0.196007, 0.002802, 0.179081
0.200245, 0.003646, 0.183995
0.099043, 0.003508, 0.196538
0.155287, 0.008913, 0.164859
0.175372, 0.004034, 0.175702
0.187627, -0.004360, 0.169430
0.195615, 0.004366, 0.180350
0.201149, 0.003393, 0.189578
0.191861, 0.003917, 0.183351
0.195383, 0.003873, 0.182861
0.191674, 0.003886, 0.183291
0.170219, -0.005294, 0.177946
0.184768, 0.002891, 0.181864
0.192506, 0.003928, 0.181804
0.201111, 0.002261, 0.189517
0.199749, 0.003729, 0.189569
0.201059, 0.002287, 0.190248
0.195535, 0.003895, 0.183719
0.196621, 0.003843, 0.182893
0.197002, 0.003844, 0.182490
0.196462, 0.003845, 0.183314
0.194666, 0.003850, 0.183780
0.196511, 0.003833, 0.183078
0.184800, 0.003766, 0.184005
0.129857, 0.002532, 0.171565
0.153353, -0.004742, 0.181737
0.201207, 0.003399, 0.185667
0.199029, 0.003301, 0.171590
0.197218, 0.001876, 0.182987
0.198341, 0.003749, 0.184699
0.195520, 0.003416, 0.182099
0.189295, 0.003025, 0.169966
0.196800, 0.001654, 0.178767
0.189523, -0.002586, 0.169069
0.197346, 0.002798, 0.181943
0.195753, -0.009427, 0.138300
0.139857, 0.005746, 0.201231
0.138146, 0.003308, 0.202152
0.168005, 0.004847, 0.189086
0.156545, 0.008755, 0.164864
0.127092, -0.008196, 0.173601
0.089372, 0.001703, 0.208118
0.194953, 0.003980, 0.182750
0.194081, 0.003859, 0.183083
0.186941, 0.003086, 0.184812
0.193874, 0.003975, 0.183595
-0.028543, -0.010242, 0.163828
0.186578, 0.002297, 0.185131
0.152845, -0.005463, 0.182628
0.168169, -0.003077, 0.179155
0.199254, 0.003704, 0.183954
0.196980, 0.003719, 0.179223
0.125712, -0.007933, 0.194475
0.183497, 0.003765, 0.179973
-0.033792, -0.019776, 0.155532
0.084292, 0.000102, 0.157162
0.159649, 0.004786, 0.177294
-0.077730, 0.007209, 0.106866
0.197065, 0.003381, 0.179352
0.185060, 0.003752, 0.178647
0.185789, 0.003326, 0.174305
0.184602, 0.004095, 0.172865
0.186979, -0.004814, 0.167524
0.197965, 0.003739, 0.181983
0.197895, 0.002756, 0.175110
0.196029, -0.002550, 0.157111
0.196893, 0.000778, 0.177854
0.199741, 0.003675, 0.186598
0.099958, 0.003502, 0.201547
0.199802, 0.003696, 0.186185
0.200446, 0.003635, 0.184104
0.201079, 0.002173, 0.187496
0.195085, 0.003893, 0.181687
0.201057, 0.001367, 0.182450
0.193939, -0.008656, 0.139209
0.201315, 0.003612, 0.185409
0.199615, 0.003707, 0.187359
0.197761, 0.001575, 0.180480
0.197060, 0.003792, 0.181753
0.197795, 0.001609, 0.180648
0.197373, 0.002160, 0.181546
0.197486, 0.003768, 0.183511
0.196220, 0.003830, 0.183557
0.158591, -0.004454, 0.163885
0.177872, 0.004325, 0.181985
0.168791, -0.001945, 0.178815
0.201321, 0.003719, 0.186842
0.198061, 0.001220, 0.179993
0.197484, 0.002784, 0.178805
0.197663, 0.003492, 0.179546
0.197856, 0.002791, 0.179966
0.198219, 0.001646, 0.179646
0.197945, 0.003603, 0.177899
0.202089, 0.001793, 0.185190
0.194690, 0.005913, 0.180794
0.189587, -0.002471, 0.169240
0.153299, 0.007906, 0.175653
0.195050, 0.003424, 0.178142
0.034986, 0.014852, 0.095463
0.196740, 0.001274, 0.180959
0.198488, 0.001566, 0.179686
0.188037, 0.004363, 0.161358
0.198239, 0.001995, 0.177696
-0.077439, -0.075554, 0.162624
0.053474, -0.006209, 0.110894
0.197111, 0.003788, 0.182659
0.197736, 0.001542, 0.179979
0.196496, 0.001765, 0.183145
0.196427, 0.002023, 0.183153
0.197158, 0.003737, 0.181657
0.195778, 0.002811, 0.182197
0.180857, 0.002665, 0.172283
0.186835, 0.004088, 0.175867
0.194069, 0.003715, 0.178323
0.197092, 0.003341, 0.181960
0.194206, 0.003933, 0.182405
0.196782, 0.004674, 0.184354
0.197347, 0.002809, 0.181931
0.198355, 0.002631, 0.175922
0.197137, 0.003775, 0.181322
0.196832, 0.003472, 0.177214
0.201211, 0.003629, 0.187044
0.052207, -0.006020, 0.110378
0.050798, -0.042400, 0.164827
0.200919, 0.001506, 0.187969
0.071389, 0.008265, 0.124347
0.042911, -0.045089, 0.137062
0.109018, 0.006305, 0.204153
0.152984, -0.002973, 0.180295
0.201230, 0.003677, 0.188203
0.189402, 0.003936, 0.169845
0.201010, 0.001351, 0.187386
0.195367, 0.003191, 0.178972
0.196910, -0.000151, 0.175639
0.138536, 0.008370, 0.170591
0.193688, 0.003892, 0.182589
0.199087, 0.001310, 0.177492
0.200815, 0.003434, 0.174797
0.195399, -0.017771, 0.128883
0.202169, -0.001645, 0.173964
0.190348, 0.003004, 0.170245
0.202247, 0.002482, 0.173568
0.198083, 0.001216, 0.179797
0.191264, -0.001816, 0.170015
0.184049, 0.002558, 0.180652
0.146805, 0.009690, 0.162617
0.150706, 0.008256, 0.163441
0.151513, -0.003426, 0.219174
0.150359, 0.008397, 0.163390
0.198925, 0.003720, 0.183960
0.178638, 0.004274, 0.172088
0.178601, 0.004233, 0.171794
0.180113, 0.002466, 0.169941
0.196680, 0.003789, 0.180904
0.199485, 0.003721, 0.183975
0.196535, 0.003618, 0.180731
0.200791, 0.003641, 0.185370
0.195438, 0.003549, 0.182116
0.201319, 0.003456, 0.185311
0.157256, -0.003864, 0.220012
0.199607, 0.003680, 0.184038
0.198244, 0.003637, 0.175928
0.197081, 0.002852, 0.182332
0.199059, 0.003356, 0.173441
0.198142, 0.003750, 0.185284
0.200959, 0.000908, 0.183023
0.186302, -0.007810, 0.158507
0.156990, -0.003721, 0.219799
0.189830, -0.003678, 0.170108
-0.423850, -0.126590, 0.193461
0.090908, 0.000054, 0.206633
0.116337, 0.008198, 0.148310
0.180957, 0.000328, 0.174051
0.165604, -0.001533, 0.164103
0.196479, 0.000077, 0.175529
0.190990, -0.004840, 0.168135
0.189478, -0.002658, 0.169063
0.161447, -0.000979, 0.179488
0.110540, 0.001082, 0.153362
0.160882, 0.008011, 0.158522
0.197727, 0.000289, 0.174530
0.196329, -0.000120, 0.176461
0.198569, 0.001501, 0.175066
0.197579, 0.003225, 0.174870
0.187368, -0.004513, 0.169101
0.198327, 0.001349, 0.178089
0.197891, 0.003730, 0.180967
0.201911, 0.003447, 0.172605
0.190728, -0.001085, 0.171501
0.199772, 0.002406, 0.187398
0.201183, 0.003379, 0.186946
0.200779, 0.003506, 0.185362
0.198572, -0.003511, 0.170834
0.190063, 0.004012, 0.167699
0.197180, 0.001615, 0.182091
0.190134, -0.002078, 0.165710
0.115691, 0.005647, 0.187593
0.200794, 0.003517, 0.185338
0.198268, 0.003730, 0.183942
0.199407, 0.003711, 0.184018
0.196994, 0.002997, 0.181224
0.187396, 0.003632, 0.185024
0.197584, 0.000754, 0.177029
0.201242, 0.003672, 0.187023
0.196955, 0.001789, 0.182572
0.199723, 0.003746, 0.186409
0.201071, 0.002169, 0.187291
0.199004, 0.003253, 0.171968
0.198077, -0.003553, 0.170624
0.195627, -0.002654, 0.138633
0.193836, -0.007715, 0.132944
0.194222, -0.004526, 0.152744
0.200820, 0.003640, 0.184170
0.194610, -0.008823, 0.142585
0.198973, 0.002919, 0.180145
0.196990, 0.002793, 0.179798
0.200385, 0.003509, 0.173078
0.193573, -0.019258, 0.123860
0.138475, -0.007829, 0.209653
0.199614, 0.003716, 0.187338
0.201224, 0.003508, 0.185218
0.196906, 0.001023, 0.177479
0.200258, 0.003672, 0.183899
0.189368, 0.004889, 0.181471
0.187332, 0.005146, 0.183232
0.201139, 0.002160, 0.187046
0.198184, 0.003822, 0.183582
0.197222, 0.004001, 0.183086
0.201133, 0.003345, 0.187027
0.195921, 0.003791, 0.181893
0.201226, 0.003642, 0.185388
0.195930, 0.003789, 0.181901
0.201139, 0.002248, 0.187124
0.176084, 0.006346, 0.171857
0.092476, 0.001486, 0.197077
0.175891, 0.002945, 0.178174
0.200114, 0.003309, 0.176692
0.200382, 0.002300, 0.173675
0.176884, 0.005589, 0.183657
0.134212, 0.006062, 0.204089
0.034153, -0.024983, 0.233522
0.201930, 0.003351, 0.175990
0.200442, 0.003626, 0.184157
0.201055, 0.001643, 0.187039
0.195840, 0.003494, 0.182147
0.188144, 0.004006, 0.169455
0.201129, 0.003352, 0.187144
0.201166, 0.003325, 0.187770
0.198368, 0.003681, 0.184115
0.191698, -0.002477, 0.169472
0.189112, -0.002006, 0.168196
0.176529, -0.000249, 0.171284
0.196896, 0.003834, 0.182967
0.197115, 0.002001, 0.182442
0.197387, 0.003811, 0.183115
0.181708, 0.004076, 0.172346
0.201239, 0.003648, 0.185363
-0.009661, 0.004543, 0.068805
0.197982, 0.003506, 0.174857
0.187844, -0.002751, 0.169684
0.197403, 0.002155, 0.181586
0.200457, 0.003657, 0.183991
0.181298, -0.000356, 0.169259
0.189569, 0.005258, 0.183033
0.195648, 0.003874, 0.183221
0.198678, -0.003383, 0.170138
0.200016, 0.003645, 0.184124
0.151085, -0.006381, 0.182538
0.197160, 0.000490, 0.177820
0.195705, 0.003132, 0.180322
0.195403, 0.002885, 0.179342
0.197511, 0.003562, 0.181314
0.200765, 0.001783, 0.184233
0.200796, 0.001604, 0.184066
0.198073, 0.003622, 0.179585
0.198079, 0.001895, 0.179649
0.086269, 0.007506, 0.125512
0.196940, -0.000106, 0.175832
0.197459, 0.000685, 0.177979
0.198214, -0.003259, 0.170668
-0.413402, -0.049381, 0.321115
0.183543, 0.005403, 0.179758
0.174004, 0.001706, 0.174438
0.197550, 0.003566, 0.181572
0.196943, 0.002113, 0.182972
0.198280, 0.003706, 0.183198
0.198414, 0.003663, 0.183505
0.197961, 0.003679, 0.183660
0.194851, 0.003844, 0.183298
0.197691, 0.003548, 0.176792
0.197158, 0.003775, 0.182674
0.196795, 0.003786, 0.183459
0.160112, -0.004050, 0.222987
0.148984, 0.005000, 0.191288
0.196686, 0.003835, 0.183391
0.196684, 0.003817, 0.182825
0.194799, 0.003476, 0.180546
0.196150, 0.003843, 0.183314
0.178126, 0.002763, 0.171425
0.197827, 0.003741, 0.183751
0.181181, 0.003924, 0.173938
0.180397, 0.003171, 0.179779
0.193941, 0.003704, 0.183417
-0.040845, -0.060802, 0.227411
0.191787, 0.003948, 0.183440
0.198027, 0.003731, 0.182703
0.197650, 0.003566, 0.180433
0.197167, 0.003790, 0.183534
0.197647, 0.003570, 0.180434
0.183274, 0.003967, 0.184219
0.164951, 0.004307, 0.171236
0.198083, 0.003715, 0.183443
0.194455, 0.003834, 0.183801
0.197167, 0.003763, 0.182701
0.179809, 0.003929, 0.173649
0.195518, 0.002947, 0.181956
0.195637, 0.002773, 0.180251
0.182672, 0.004020, 0.175673
0.195678, 0.003887, 0.183871
0.193642, 0.003837, 0.183645
0.197281, 0.003763, 0.183426
0.196997, 0.003789, 0.182953
0.180017, 0.004080, 0.181974
0.173069, 0.001262, 0.181100
0.165456, 0.003558, 0.192219
0.134736, -0.000971, 0.196706
0.147756, 0.005765, 0.199952
0.185474, 0.003696, 0.178992
0.194790, 0.003895, 0.182768
0.192944, 0.003913, 0.180707
0.199325, 0.003672, 0.182745
0.160710, 0.008076, 0.172786
0.143531, 0.010149, 0.179124
0.067140, 0.000801, 0.118037
0.130455, 0.008611, 0.158837
0.138449, 0.008317, 0.161041
0.196748, 0.001624, 0.182032
0.196753, 0.001564, 0.181755
0.143180, 0.002768, 0.199898
0.108771, -0.001181, 0.145110
0.116865, 0.003131, 0.151251
0.185879, 0.002507, 0.174073
0.195976, 0.002647, 0.182925
0.197591, 0.003734, 0.183756
0.197391, 0.003679, 0.181691
0.198232, 0.003952, 0.182915
0.180622, 0.005761, 0.175288
0.115795, -0.022399, 0.135701
0.077774, -0.003269, 0.144963
0.113331, 0.008421, 0.152245
0.100653, 0.009828, 0.190348
-0.016044, -0.050639, 0.223630
0.091249, -0.004671, 0.151586
0.120701, 0.002492, 0.198842
0.198514, 0.003702, 0.183117
0.195121, 0.003880, 0.183759
0.196554, 0.001467, 0.183189
0.197944, 0.003756, 0.181906
0.195713, 0.003849, 0.183835
0.182535, 0.001585, 0.181903
0.130750, -0.009556, 0.170259
0.198421, 0.003803, 0.179184
0.197968, 0.001635, 0.178325
-0.024316, -0.047439, 0.236473
0.065138, -0.012491, 0.180223
-0.050232, -0.057748, 0.162536
-0.074892, -0.037139, 0.161213
0.186516, 0.002987, 0.176563
0.181527, -0.000912, 0.170965
0.196444, 0.001921, 0.183208
0.197680, 0.000388, 0.175311
0.197101, -0.000056, 0.175695
0.193847, -0.008793, 0.138937
0.177896, 0.004218, 0.177035
0.196750, 0.001888, 0.183095
0.196634, 0.003793, 0.183130
0.200481, 0.002401, 0.174134
0.194619, -0.003013, 0.170194
0.182499, 0.003989, 0.173000
0.176817, 0.000036, 0.171239
0.196852, 0.003822, 0.182728
0.195562, 0.002801, 0.181944
0.182936, 0.003197, 0.179975
0.194509, 0.003540, 0.180168
0.195655, 0.003223, 0.182386
0.196790, 0.000021, 0.176316
0.199229, 0.003705, 0.184092
0.200116, 0.002358, 0.173632
0.192251, 0.003934, 0.180203
0.198327, 0.003761, 0.184674
0.199919, 0.003645, 0.183197
0.157080, -0.003979, 0.219594
0.155938, -0.004329, 0.180999
0.102200, 0.006691, 0.135178
0.107105, 0.001960, 0.194189
0.195882, 0.003204, 0.179712
0.195608, 0.003867, 0.183767
0.184093, 0.002434, 0.172462
0.196848, 0.001470, 0.183153
0.193117, -0.009275, 0.138956
0.197240, 0.003799, 0.183206
0.196007, 0.003874, 0.183756
0.195561, 0.003888, 0.183745
0.182922, 0.004139, 0.175706
0.196641, 0.001461, 0.181510
0.195179, 0.003782, 0.181061
0.197899, 0.003768, 0.184030
0.198279, 0.003709, 0.182711
0.196727, 0.003799, 0.183018
0.197480, 0.003395, 0.177464
0.200434, 0.003623, 0.181519
0.202250, 0.003451, 0.174100
0.203572, 0.003575, 0.169569
0.196708, 0.000350, 0.176045
0.197257, 0.003730, 0.182856
0.194240, 0.003881, 0.183710
0.196692, 0.003810, 0.183941
0.197766, 0.003789, 0.182935
-0.080853, -0.004807, 0.156449
0.165268, 0.007589, 0.162483
0.142223, 0.007971, 0.170582
-0.061372, -0.014673, 0.127643
0.160571, -0.002660, 0.186976
-0.029456, -0.056468, 0.212703
-0.082617, -0.071735, 0.156184
0.172162, 0.001941, 0.184668
-0.087655, -0.014072, 0.137224
0.077930, 0.005796, 0.127824
0.153929, 0.009090, 0.177414
0.109704, 0.004758, 0.144300
0.183835, 0.003681, 0.181526
0.199637, 0.003649, 0.183008
0.197982, 0.001549, 0.178208
0.197214, 0.000191, 0.174898
0.196275, 0.002786, 0.177050
0.173315, 0.004241, 0.181115
0.180790, 0.004171, 0.171743
0.197112, -0.000080, 0.175654
0.173395, 0.000816, 0.174399
0.194620, 0.003336, 0.178423
0.195834, 0.003197, 0.180449
0.195817, 0.003837, 0.182669
0.197794, 0.003772, 0.182970
0.198665, 0.003727, 0.183959
0.197146, 0.001889, 0.182798
0.195279, 0.003779, 0.179249
0.192820, -0.004867, 0.159338
0.197486, 0.002795, 0.179984
0.197116, 0.003766, 0.181552
0.177999, -0.004833, 0.170057
0.178323, -0.004455, 0.172213
0.191488, 0.002794, 0.178381
0.189500, -0.003159, 0.170008
0.054827, -0.005593, 0.111737
0.139894, 0.008265, 0.169928
-0.019512, -0.045393, 0.206835
0.082624, 0.008274, 0.154823
0.197758, -0.000288, 0.160927
0.196761, 0.000070, 0.176216
0.197432, 0.000019, 0.175538
0.197271, 0.003519, 0.177449
0.199746, 0.003686, 0.183974
0.066854, 0.000128, 0.113323
0.108803, -0.008389, 0.190216
0.135350, 0.008256, 0.161598
0.195278, 0.003958, 0.182835
0.195235, 0.003936, 0.183051
0.194853, 0.004026, 0.182371
0.194952, 0.003985, 0.182457
0.200364, 0.002164, 0.172342
-0.121894, -0.000670, 0.122937
0.191598, 0.003813, 0.171225
0.189997, 0.004013, 0.167493
0.202043, -0.002719, 0.174074
0.194873, -0.003613, 0.170899
0.188796, -0.015829, 0.119834
0.190170, -0.002340, 0.166032
0.200790, 0.001744, 0.184126
0.196731, 0.003794, 0.184016
0.197394, 0.001556, 0.181880
0.199395, 0.003716, 0.183941
0.197435, 0.003767, 0.183888
0.197732, 0.003756, 0.183960
0.200011, 0.003635, 0.180807
0.197830, 0.000665, 0.175650
0.195903, -0.000468, 0.175647
0.187889, 0.003364, 0.176168
0.195686, 0.000431, 0.177020
0.194960, -0.003875, 0.156880
0.198665, 0.002660, 0.178292
0.191996, 0.003897, 0.181581
0.193815, 0.003786, 0.183572
0.201285, 0.003640, 0.187061
0.199800, 0.003700, 0.186174
0.197583, 0.003287, 0.182334
0.201107, 0.001893, 0.186521
0.197374, 0.003291, 0.181731
0.200794, 0.003648, 0.185328
0.201224, 0.003406, 0.185250
0.197711, 0.003323, 0.179062
0.195874, 0.003820, 0.182736
0.197381, 0.003667, 0.181698
0.197127, 0.003779, 0.183353
0.195703, 0.003884, 0.183397
0.196733, 0.003816, 0.183416
0.113192, 0.003404, 0.153754
-0.023648, -0.055506, 0.244865
0.201560, 0.000636, 0.179027
0.197658, 0.003540, 0.174797
-0.315020, -0.055674, 0.111214
0.197046, 0.003802, 0.181713
0.197896, 0.003515, 0.178825
0.198374, 0.001434, 0.178417
0.197674, 0.003771, 0.184017
0.171386, -0.004253, 0.178399
0.131738, 0.008448, 0.176719
0.181313, 0.004212, 0.182297
0.135090, -0.008659, 0.168140
0.160802, -0.001545, 0.180377
0.152643, -0.002113, 0.182045
0.189593, -0.003157, 0.169443
0.196965, 0.003184, 0.175905
0.199413, 0.003717, 0.184686
0.090572, 0.007832, 0.207596
0.107077, 0.004328, 0.143054
0.195999, 0.003881, 0.183848
0.195013, 0.003837, 0.180848
0.175977, -0.003608, 0.171177
0.194893, 0.003942, 0.183772
0.194579, 0.003971, 0.182620
0.198984, 0.003105, 0.172732
0.198380, -0.002353, 0.170122
0.198671, 0.002427, 0.177642
0.195807, 0.003831, 0.183327
0.197415, 0.003369, 0.177994
0.196418, 0.000027, 0.174381
0.185876, 0.003658, 0.185208
0.182602, 0.003938, 0.175646
0.199391, 0.003692, 0.184099
0.197442, 0.002775, 0.176740
0.182241, -0.004409, 0.149705
0.198636, 0.002313, 0.177192
0.195583, 0.003877, 0.183753
0.196505, 0.003831, 0.182885
0.197181, 0.003748, 0.181688
0.197646, 0.003702, 0.183823
0.194176, 0.003837, 0.183586
0.197790, 0.003376, 0.178025
0.195126, -0.009642, 0.140727
0.200563, 0.003492, 0.175703
0.200115, 0.001284, 0.171505
0.200139, 0.001287, 0.171277
0.200916, 0.003564, 0.172940
0.200795, 0.003501, 0.185357
0.197689, 0.001528, 0.181450
0.194723, 0.003800, 0.183972
0.196246, 0.003867, 0.183749
0.172482, -0.004307, 0.174161
0.172890, -0.004565, 0.173387
0.194779, 0.003890, 0.179291
0.194733, 0.003895, 0.183080
0.194811, 0.003904, 0.183298
0.193175, 0.003615, 0.173960
0.197372, 0.000856, 0.178538
0.193742, 0.003580, 0.175004
0.191756, -0.000618, 0.169596
0.200853, 0.003453, 0.184177
0.200763, 0.003606, 0.185372
0.202206, -0.001522, 0.175585
0.201182, 0.000367, 0.180869
0.200009, 0.003670, 0.183972
0.201535, 0.000738, 0.179424
0.202756, -0.000716, 0.172493
0.195018, -0.003509, 0.170283
0.197834, 0.002013, 0.182004
0.198123, 0.003446, 0.184886
0.199408, 0.003720, 0.184673
0.197937, 0.003709, 0.181079
0.189163, -0.002381, 0.169627
0.201778, 0.002002, 0.173809
0.195352, 0.003669, 0.178298
0.199791, 0.003727, 0.186099
-0.018231, -0.047118, 0.215764
0.094551, 0.006133, 0.176463
0.190087, 0.002922, 0.168218
0.193589, 0.003706, 0.180390
0.200101, 0.003742, 0.180924
0.198640, 0.003696, 0.183470
0.196117, 0.000581, 0.176174
0.198142, 0.001789, 0.183462
0.197100, -0.000136, 0.176010
0.129784, 0.002501, 0.195774
0.166885, -0.002130, 0.175452
0.200231, 0.003603, 0.184263
0.160473, -0.007527, 0.184629
0.200217, 0.001336, 0.171103
0.195601, 0.000447, 0.176825
0.107160, 0.008532, 0.143058
0.198120, 0.003739, 0.175972
0.198781, 0.003719, 0.183975
0.197403, 0.003603, 0.178223
0.197265, 0.003771, 0.183999
0.197453, 0.001988, 0.180830
0.190480, 0.004026, 0.184262
0.195106, 0.003922, 0.183217
0.191993, 0.003979, 0.180045
0.184660, 0.003082, 0.181096
0.197560, 0.001750, 0.180001
0.199229, 0.003716, 0.183870
0.197764, 0.003696, 0.183829
0.059740, -0.007593, 0.180054
0.197624, 0.003244, 0.179097
0.196720, 0.003781, 0.181007
0.196922, 0.003485, 0.179839
0.197697, 0.003717, 0.183410
0.183132, 0.002293, 0.172293
0.198974, 0.003611, 0.179235
0.197484, 0.003726, 0.181897
0.192466, -0.000531, 0.176737
0.185222, 0.003987, 0.172314
0.198815, 0.003743, 0.182676
0.195771, 0.003831, 0.183816
0.174922, 0.006766, 0.172307
0.173611, 0.006081, 0.173134
0.194634, 0.003306, 0.180478
0.198533, 0.003701, 0.183836
0.199493, 0.003682, 0.183310
0.199855, 0.003742, 0.183775
0.192512, 0.004420, 0.160785
0.196850, 0.003588, 0.180883
0.196150, 0.003783, 0.180955
0.196130, 0.003797, 0.180919
0.196416, 0.003136, 0.175978
-0.019859, -0.063249, 0.239830
0.171813, 0.004383, 0.188604
0.183649, 0.002937, 0.180261
0.167645, 0.001434, 0.182681
0.195005, 0.003931, 0.182123
0.200469, 0.003695, 0.182276
0.196236, 0.001581, 0.183394
0.200005, 0.003698, 0.183838
0.197230, 0.003754, 0.182780
0.197326, 0.003747, 0.183337
0.035338, 0.014674, 0.078827
0.164250, 0.007916, 0.163108
0.167625, -0.003349, 0.174191
0.197289, 0.003727, 0.182890
0.199033, 0.003034, 0.171586
0.191665, 0.003929, 0.183705
0.194151, 0.003797, 0.183389
0.194082, 0.003892, 0.183225
0.181560, 0.000331, 0.171111
0.194786, 0.003897, 0.182772
0.144164, -0.003697, 0.166211
0.127991, 0.008472, 0.169232
-0.025103, -0.054335, 0.160818
0.045931, 0.008664, 0.192251
-0.020045, -0.048166, 0.201434
0.004683, -0.037329, 0.140942
0.042794, -0.025513, 0.138686
0.157326, -0.003844, 0.220113
0.200828, 0.003029, 0.184215
0.157256, -0.003854, 0.219992
0.200820, 0.002992, 0.184243
0.196530, -0.000139, 0.174151
-0.026474, -0.050052, 0.201712
0.196743, 0.003616, 0.180686
0.172313, -0.004681, 0.173312
0.198267, 0.003733, 0.183929
0.200821, 0.003654, 0.184114
0.184389, 0.002904, 0.182037
0.112040, 0.004935, 0.154520
0.200871, 0.003468, 0.184111
0.197986, 0.001637, 0.179001
0.200013, 0.003650, 0.184083
0.196190, 0.001614, 0.183360
0.199330, 0.003760, 0.183830
0.197517, 0.003733, 0.181398
0.197126, 0.003799, 0.182611
0.196868, 0.003844, 0.183784
0.115281, -0.004649, 0.187691
0.100627, -0.002725, 0.188012
0.195679, 0.003869, 0.182580
0.182805, 0.003965, 0.179682
0.195200, 0.003790, 0.179936
0.197794, 0.002763, 0.180889
0.199287, 0.003649, 0.180260
0.199532, 0.003648, 0.183966
0.198662, 0.003713, 0.183962
0.199526, 0.003681, 0.183876
0.197779, 0.003781, 0.183979
0.195528, 0.003182, 0.182201
0.198345, 0.003750, 0.184692
0.199886, 0.003689, 0.185100
0.199479, 0.003658, 0.180810
0.196633, 0.002732, 0.177445
0.198027, 0.002733, 0.176168
0.200258, 0.003670, 0.183910
0.046914, -0.004661, 0.135735
0.158737, -0.006176, 0.178263
-0.251071, 0.008309, 0.132487
-0.056743, -0.036278, 0.087432
-0.038384, -0.049603, 0.141315
0.175617, 0.004173, 0.182513
-0.105434, -0.041903, 0.150816
0.159022, 0.008195, 0.166016
-0.070776, -0.053128, 0.142810
0.000008, -0.042340, 0.110336
-0.024430, -0.035025, 0.199956
0.039604, -0.008405, 0.247625
0.091262, -0.020730, 0.209578
0.162566, 0.009706, 0.187588
-1.312682, -0.167240, 0.381449
0.189806, 0.003984, 0.184316
0.146406, 0.000333, 0.171039
0.128609, 0.008357, 0.169847
0.071380, 0.000770, 0.119851
0.107755, 0.020321, 0.196154
0.002856, -0.019366, 0.141923
0.018388, -0.033666, 0.192403
0.114226, 0.008368, 0.153307
0.030281, -0.028565, 0.098998
0.081627, 0.007679, 0.128987
-0.432130, -0.118134, 0.150372
0.151053, 0.008143, 0.166502
0.009830, -0.036685, 0.141918
0.162470, -0.003391, 0.183179
0.169665, 0.002002, 0.177641
0.184671, 0.003787, 0.180720
0.183358, 0.003453, 0.183656
0.183818, 0.003824, 0.182034
0.168969, 0.001205, 0.179405
0.161605, -0.003650, 0.182340
-0.042979, -0.068265, 0.205455
0.153587, -0.004926, 0.182023
0.197435, 0.003762, 0.181766
0.196856, 0.003832, 0.183910
0.196744, 0.003793, 0.183039
0.180222, 0.004112, 0.171018
0.178992, 0.004207, 0.169808
0.174674, -0.004642, 0.170302
0.177933, -0.004853, 0.170032
0.192099, 0.003571, 0.178308
0.177880, 0.003932, 0.172250
0.194904, 0.003838, 0.183342
0.195334, 0.003521, 0.181463
0.172328, -0.003963, 0.174309
0.197528, 0.003777, 0.183053
0.197822, 0.003772, 0.182812
0.197990, 0.003737, 0.183358
0.182963, 0.003951, 0.177158
0.196791, 0.001737, 0.182262
0.196832, 0.001779, 0.182336
0.196835, 0.003818, 0.183927
0.197395, 0.003373, 0.181831
0.183031, 0.003600, 0.177244
0.176733, 0.004335, 0.174119
0.195630, 0.003872, 0.183797
0.197549, 0.003757, 0.183100
0.197264, 0.002098, 0.181202
0.197450, 0.003442, 0.179868
0.176693, 0.002282, 0.179625
0.184647, 0.003747, 0.174457
0.172646, -0.004225, 0.177856
0.094323, -0.004496, 0.158944
-0.005769, -0.045212, 0.110427
0.161074, 0.008141, 0.159652
0.195423, 0.002815, 0.181245
0.196755, 0.003759, 0.176616
0.191846, 0.003117, 0.177921
0.178906, 0.004213, 0.172001
0.189580, -0.003318, 0.169522
0.193539, 0.003719, 0.179964
0.196276, 0.003841, 0.183916
0.195460, 0.002755, 0.179875
0.197257, 0.003789, 0.183242
0.173587, -0.004392, 0.169641
0.197406, 0.003744, 0.183822
0.197952, 0.002087, 0.181840
0.196994, 0.003378, 0.181469
0.197693, 0.001640, 0.181960
0.197714, 0.003738, 0.182709
0.196300, 0.001855, 0.183072
0.181484, 0.002904, 0.173901
0.197189, 0.002300, 0.182676
0.196808, 0.003779, 0.183490
0.196736, 0.003808, 0.178479
0.197549, 0.002746, 0.181816
0.197261, 0.003783, 0.183236
0.197170, 0.003788, 0.183784
0.176142, 0.002735, 0.169079
0.174698, -0.004077, 0.170340
0.183722, 0.004160, 0.182299
0.083670, -0.027396, 0.196599
0.180576, 0.001864, 0.182531
0.157722, -0.008960, 0.169557
0.072007, 0.008225, 0.165550
0.196681, 0.001668, 0.181983
0.198101, 0.002759, 0.179768
0.198118, 0.002753, 0.179883
0.196345, 0.003407, 0.179594
0.196443, 0.003758, 0.176886
0.197066, 0.002287, 0.182463
0.197977, 0.003741, 0.182651
0.195851, 0.003801, 0.181760
0.195855, 0.003800, 0.181762
0.194397, 0.003561, 0.180892
0.196293, 0.003833, 0.183947
0.196843, 0.001997, 0.183010
0.197493, 0.003424, 0.180052
0.197718, 0.000841, 0.179263
0.197730, 0.003716, 0.183454
0.197864, 0.003681, 0.183801
0.197765, 0.001691, 0.182084
0.197666, 0.000516, 0.174758
0.197550, 0.003796, 0.182793
0.195775, 0.003842, 0.183309
0.197176, 0.003773, 0.183780
0.186599, -0.005081, 0.166905
0.198084, 0.001793, 0.179571
0.197734, 0.003069, 0.177665
0.197615, 0.002885, 0.184464
0.196880, 0.003812, 0.182895
0.195471, 0.003949, 0.182378
0.138583, -0.001765, 0.151960
0.195472, 0.003836, 0.182886
0.194495, 0.003311, 0.180900
0.180026, 0.002765, 0.171767
0.172610, -0.002013, 0.167201
0.180751, 0.002660, 0.172218
0.197649, 0.003757, 0.181862
0.197630, 0.002566, 0.180835
0.161245, 0.008177, 0.162814
0.009950, 0.013874, 0.062212
0.104786, -0.003136, 0.195723
0.048836, -0.030325, 0.223240
0.176618, 0.003161, 0.183801
0.191197, 0.004104, 0.180871
0.190955, 0.004217, 0.180767
0.191176, 0.004375, 0.180866
0.193672, 0.002644, 0.180621
0.195342, 0.003249, 0.182077
0.196872, 0.002043, 0.182870
0.197280, 0.003761, 0.183423
0.183418, 0.003897, 0.177320
0.198013, 0.003703, 0.183427
0.197412, 0.002787, 0.179447
0.197618, 0.003771, 0.183073
0.110505, 0.006036, 0.144022
0.058923, -0.003427, 0.140424
-0.052533, -0.045204, 0.271312
0.025189, 0.010543, 0.197757
0.198128, 0.003688, 0.183386
0.198703, 0.003730, 0.183304
0.195771, 0.003832, 0.183838
0.183275, 0.003821, 0.177956
0.175706, -0.004307, 0.170961
0.177533, 0.002397, 0.171224
0.196904, 0.003779, 0.182352
0.198426, 0.003707, 0.181542
0.198571, 0.001388, 0.176327
0.191923, 0.003900, 0.181543
0.103136, -0.006930, 0.174588
0.194304, 0.003925, 0.183117
0.191693, 0.003928, 0.181506
0.193845, 0.003889, 0.183665
0.196341, 0.001531, 0.183307
0.196014, 0.003744, 0.182888
0.178754, 0.006561, 0.173693
0.195616, 0.002742, 0.182492
0.191774, 0.002891, 0.171660
0.195789, 0.003901, 0.183745
0.197830, 0.003640, 0.175204
0.197849, 0.000464, 0.175528
0.026208, -0.029939, 0.097462
0.097328, -0.005922, 0.158887
0.015001, -0.045267, 0.129114
0.195866, 0.002655, 0.182784
0.198171, 0.002021, 0.180403
0.198208, 0.002011, 0.177697
0.200080, 0.001386, 0.172695
0.198305, 0.003538, 0.177938
0.200188, 0.002229, 0.171166
0.195338, 0.003826, 0.181941
0.194640, 0.003965, 0.183757
0.189169, 0.004272, 0.184929
0.197373, 0.003757, 0.183963
0.194868, 0.003850, 0.183298
0.196909, 0.001565, 0.183130
0.196410, 0.001885, 0.183078
0.197270, 0.002744, 0.179266
0.197347, 0.003769, 0.183080
0.197704, 0.001732, 0.181986
0.141240, 0.005597, 0.192078
0.198012, 0.003761, 0.183907
0.197760, 0.001710, 0.182113
0.198008, 0.001399, 0.174657
0.159054, 0.008114, 0.162724
0.150680, 0.008192, 0.174430
0.133426, 0.008404, 0.180419
0.033770, 0.009948, 0.193300
0.018997, -0.028080, 0.097541
0.005536, -0.033833, 0.126036
0.134164, -0.000469, 0.180243
0.115166, -0.004075, 0.188220
0.138400, 0.008358, 0.161141
0.194426, 0.003866, 0.183702
0.197564, 0.003374, 0.180373
0.196854, 0.003807, 0.183923
0.197201, 0.003791, 0.183960
0.197736, 0.003710, 0.183667
0.149664, 0.008643, 0.163189
0.109939, 0.008572, 0.188745
0.180949, -0.001045, 0.170233
0.159346, 0.008102, 0.166090
0.000397, -0.042717, 0.197685
0.192009, 0.003962, 0.179157
0.180726, 0.000538, 0.170084
0.185191, 0.003779, 0.181391
0.196948, 0.003798, 0.183870
0.199333, 0.003684, 0.183310
0.198188, 0.001651, 0.175806
0.196183, 0.004700, 0.175049
0.196892, 0.003734, 0.183084
0.197285, 0.003731, 0.182881
0.199438, 0.003701, 0.184019
0.006233, -0.040949, 0.213900
0.148834, 0.008092, 0.167492
0.176140, 0.006592, 0.173337
0.199615, 0.003688, 0.178297
0.200540, 0.003546, 0.176097
0.199593, 0.003666, 0.184038
0.200327, 0.003647, 0.183577
0.177396, -0.004365, 0.169240
0.178780, 0.001116, 0.172639
0.178265, 0.001012, 0.172327
0.195893, 0.003475, 0.179581
0.177822, 0.002783, 0.175111
0.194459, 0.003985, 0.182041
0.078464, 0.000743, 0.122118
0.092165, 0.007067, 0.128768
0.150684, 0.008202, 0.171887
-0.089477, -0.022099, 0.129143
0.033494, 0.001679, 0.194125
-0.181238, 0.012439, 0.118848
0.193968, 0.003938, 0.183638
0.183908, 0.004109, 0.180434
-0.008948, 0.008267, 0.205045
0.040407, 0.007663, 0.193734
-0.076465, -0.081169, 0.193805
0.194241, 0.003796, 0.183059
0.183574, 0.002915, 0.180130
0.167975, -0.004314, 0.178514
0.181122, 0.002675, 0.183714
0.196791, 0.003759, 0.182944
0.195943, 0.003809, 0.182990
0.195811, 0.003845, 0.182716
0.129947, -0.009740, 0.170341
-0.003218, -0.040365, 0.139869
-0.032279, -0.027193, 0.151829
0.154038, -0.001250, 0.179954
0.154256, 0.000729, 0.189684
0.186751, 0.004066, 0.184791
0.183247, 0.003842, 0.183776
0.194412, 0.003862, 0.183744
0.177198, -0.004501, 0.169025
0.197987, 0.002178, 0.178855
0.195665, 0.002823, 0.181589
0.196851, 0.003829, 0.182856
0.195795, 0.003833, 0.183303
0.195549, 0.002272, 0.182795
0.197888, 0.001702, 0.178489
0.197845, 0.001697, 0.182349
0.115377, 0.005886, 0.152136
0.090376, 0.007251, 0.128756
0.181213, 0.000382, 0.171277
0.196309, -0.000351, 0.176135
0.197072, 0.003106, 0.181595
0.195134, 0.003558, 0.181170
0.196936, 0.002833, 0.181664
0.197019, 0.000731, 0.176520
0.197755, 0.001521, 0.179992
0.195849, 0.003786, 0.183944
0.198196, 0.003705, 0.183863
0.196660, 0.001868, 0.183096
0.196916, 0.003789, 0.183779
0.195038, 0.003851, 0.183403
0.198516, 0.003739, 0.183015
0.196353, 0.002184, 0.183112
0.196577, -0.000109, 0.175484
0.144549, -0.012058, 0.198755
0.186229, 0.003693, 0.177146
0.180250, 0.002715, 0.181541
0.196725, 0.003801, 0.183989
0.197057, 0.002002, 0.181686
0.196733, 0.003773, 0.181015
0.196692, 0.002797, 0.179092
0.178479, -0.004745, 0.170044
0.107422, -0.005044, 0.191439
0.195470, 0.003826, 0.181816
0.195645, 0.002824, 0.182049
0.180737, -0.004717, 0.171967
0.195288, 0.003900, 0.182720
0.195215, 0.003765, 0.179969
0.196967, 0.002771, 0.181113
0.197413, 0.003752, 0.183843
0.195893, 0.003822, 0.182932
0.196397, 0.001854, 0.183088
0.197979, 0.003692, 0.177665
0.196786, 0.003777, 0.182948
0.195248, 0.003769, 0.181914
0.175777, -0.004831, 0.168024
0.195298, 0.003929, 0.183673
0.195093, 0.002387, 0.182144
0.183627, 0.003480, 0.180123
0.194425, 0.002208, 0.181591
0.196871, 0.001631, 0.181950
0.192679, 0.002654, 0.179688
0.195164, 0.003810, 0.181032
0.196480, 0.001915, 0.183256
0.198610, 0.003686, 0.183335
0.175149, -0.003904, 0.170674
0.107481, 0.004533, 0.188789
-0.128928, 0.011719, 0.140775
0.104631, 0.006275, 0.191346
0.183916, 0.003897, 0.182041
0.177102, 0.003691, 0.177081
0.167360, -0.003934, 0.178773
0.109187, -0.001369, 0.144483
0.184003, 0.002918, 0.180116
0.178501, 0.002822, 0.172710
0.183630, 0.003989, 0.173209
0.195391, 0.003843, 0.183336
0.159673, 0.008030, 0.159550
0.163413, 0.008081, 0.162431
0.160846, -0.001700, 0.167993
0.142485, -0.004702, 0.193442
0.190502, 0.004009, 0.184108
0.107875, 0.005964, 0.154181
0.180661, 0.004058, 0.176521
0.149377, 0.008438, 0.174695
0.156392, -0.003752, 0.219815
-0.038060, -0.049487, 0.133690
0.196595, 0.001566, 0.181749
0.198030, 0.002709, 0.175464
0.198041, 0.002268, 0.179353
0.197198, 0.002082, 0.182099
0.196010, 0.003732, 0.181983
0.197385, 0.003754, 0.183145
0.198038, 0.003735, 0.182687
0.198420, 0.003723, 0.182299
0.198208, 0.003748, 0.183830
0.181067, 0.001046, 0.171948
0.173417, -0.004500, 0.168711
0.196854, 0.003822, 0.182769
0.195411, 0.003848, 0.180908
0.182561, 0.002947, 0.176173
0.182152, 0.002875, 0.176737
0.168591, 0.002908, 0.170659
0.186378, 0.003493, 0.173217
0.196654, 0.003828, 0.182925
0.196254, 0.003863, 0.183737
0.195844, 0.003826, 0.183498
0.195417, 0.003852, 0.183910
0.196933, 0.003281, 0.181317
0.197696, 0.003436, 0.178321
0.197990, 0.003768, 0.183813
